ply
format ascii 1.0
element vertex 1236
property float x
property float y
property float z
property uchar red
property uchar green
property uchar blue
end_header
0.032961 -0.026664 0.924892 186 186 186
0.032959 -0.025339 0.924835 189 189 189
0.032956 -0.024015 0.924778 212 212 212
0.032954 -0.022690 0.924721 191 191 191
0.032952 -0.021366 0.924664 186 186 186
0.032950 -0.020042 0.924606 192 192 192
0.032948 -0.018718 0.924549 216 216 216
0.032946 -0.017394 0.924492 235 235 235
0.032944 -0.016071 0.924435 182 182 182
0.032942 -0.014747 0.924378 0 0 0
0.032940 -0.013424 0.924321 30 30 30
0.032938 -0.012101 0.924264 0 0 0
0.032936 -0.010778 0.924207 0 0 0
0.032934 -0.009456 0.924150 0 0 0
0.032932 -0.008133 0.924093 0 0 0
0.032930 -0.006811 0.924036 34 34 34
0.032928 -0.005488 0.923979 0 0 0
0.032926 -0.004166 0.923922 5 5 5
0.032924 -0.002844 0.923865 4 4 4
0.032922 -0.001522 0.923808 8 8 8
0.032920 -0.000201 0.923751 32 32 32
0.032918 0.001121 0.923694 69 69 69
0.032916 0.002442 0.923637 100 100 100
0.032914 0.003763 0.923580 136 136 136
0.032912 0.005084 0.923523 175 175 175
0.032910 0.006405 0.923466 231 231 231
0.032908 0.007725 0.923409 245 245 245
0.032906 0.009046 0.923352 246 246 246
0.032904 0.010366 0.923295 243 243 243
0.032902 0.011686 0.923238 240 240 240
0.032900 0.013006 0.923181 225 225 225
0.032898 0.014326 0.923124 234 234 234
0.032896 0.015646 0.923067 224 224 224
0.032893 0.016965 0.923010 188 188 188
0.032891 0.018285 0.922953 207 207 207
0.032889 0.019604 0.922896 206 206 206
0.032887 0.020923 0.922839 207 207 207
0.032885 0.022242 0.922782 214 214 214
0.032883 0.023560 0.922726 233 233 233
0.032881 0.024879 0.922669 255 255 255
0.032879 0.026197 0.922612 250 250 250
0.032877 0.027515 0.922555 213 213 213
0.032875 0.028833 0.922498 136 136 136
0.032873 0.030151 0.922441 33 33 33
0.032871 0.031469 0.922384 0 0 0
0.032869 0.032786 0.922328 0 0 0
0.032867 0.034104 0.922271 16 16 16
0.032865 0.035421 0.922214 18 18 18
0.032863 0.036738 0.922157 14 14 14
0.032861 0.038055 0.922100 0 0 0
0.032859 0.039372 0.922044 7 7 7
0.032857 0.040688 0.921987 1 1 1
0.032855 0.042005 0.921930 0 0 0
0.032853 0.043321 0.921873 8 8 8
0.032851 0.044637 0.921816 15 15 15
0.032849 0.045953 0.921760 10 10 10
0.032847 0.047269 0.921703 8 8 8
0.032845 0.048584 0.921646 0 0 0
0.032843 0.049900 0.921589 19 19 19
0.032841 0.051215 0.921533 24 24 24
0.032839 0.052530 0.921476 42 42 42
0.032837 0.053845 0.921419 22 22 22
0.032835 0.055160 0.921363 28 28 28
0.032833 0.056474 0.921306 6 6 6
0.032831 0.057789 0.921249 0 0 0
0.032829 0.059103 0.921192 8 8 8
0.032827 0.060417 0.921136 0 0 0
0.032825 0.061731 0.921079 3 3 3
0.032823 0.063045 0.921022 0 0 0
0.032821 0.064359 0.920966 0 0 0
0.032819 0.065672 0.920909 21 21 21
0.032817 0.066985 0.920852 55 55 55
0.032815 0.068299 0.920796 59 59 59
0.032813 0.069612 0.920739 117 117 117
0.032811 0.070925 0.920683 181 181 181
0.032809 0.072237 0.920626 207 207 207
0.032807 0.073550 0.920569 99 99 99
0.032804 0.074862 0.920513 0 0 0
0.032802 0.076174 0.920456 12 12 12
0.032800 0.077486 0.920399 8 8 8
0.032798 0.078798 0.920343 0 0 0
0.032796 0.080110 0.920286 0 0 0
0.032794 0.081421 0.920230 20 20 20
0.032792 0.082733 0.920173 29 29 29
0.032790 0.084044 0.920117 37 37 37
0.032788 0.085355 0.920060 67 67 67
0.032786 0.086666 0.920003 37 37 37
0.032784 0.087977 0.919947 42 42 42
0.032782 0.089287 0.919890 33 33 33
0.032780 0.090598 0.919834 24 24 24
0.032778 0.091908 0.919777 34 34 34
0.032776 0.093218 0.919721 37 37 37
0.032774 0.094528 0.919664 38 38 38
0.032772 0.095838 0.919608 48 48 48
0.032770 0.097147 0.919551 53 53 53
0.032768 0.098457 0.919495 55 55 55
0.032766 0.099766 0.919438 59 59 59
0.032764 0.101075 0.919382 58 58 58
0.032762 0.102384 0.919325 67 67 67
0.032760 0.103693 0.919269 75 75 75
0.032758 0.105002 0.919213 87 87 87
0.032756 0.106310 0.919156 65 65 65
0.032754 0.107619 0.919100 71 71 71
0.032752 0.108927 0.919043 81 81 81
0.032750 0.110235 0.918987 83 83 83
0.032748 0.111543 0.918930 43 43 43
0.032746 0.112850 0.918874 20 20 20
0.032744 0.114158 0.918818 10 10 10
0.032742 0.115465 0.918761 71 71 71
0.034251 -0.070261 0.924014 177 177 177
0.034249 -0.068935 0.923957 172 172 172
0.034247 -0.067609 0.923900 138 138 138
0.034245 -0.066283 0.923843 110 110 110
0.034243 -0.064957 0.923786 64 64 64
0.034241 -0.063632 0.923729 23 23 23
0.034238 -0.062307 0.923672 7 7 7
0.034236 -0.060981 0.923615 5 5 5
0.034234 -0.059656 0.923558 25 25 25
0.034232 -0.058332 0.923501 67 67 67
0.034230 -0.057007 0.923444 183 183 183
0.034228 -0.055682 0.923387 233 233 233
0.034226 -0.054358 0.923330 223 223 223
0.034224 -0.053034 0.923273 207 207 207
0.034222 -0.051710 0.923216 200 200 200
0.034219 -0.050386 0.923159 176 176 176
0.034217 -0.049062 0.923102 190 190 190
0.034215 -0.047739 0.923045 197 197 197
0.034213 -0.046415 0.922988 183 183 183
0.034211 -0.045092 0.922931 187 187 187
0.034209 -0.043769 0.922874 191 191 191
0.034207 -0.042446 0.922818 190 190 190
0.034205 -0.041124 0.922761 187 187 187
0.034203 -0.039801 0.922704 183 183 183
0.034200 -0.038479 0.922647 183 183 183
0.034198 -0.037156 0.922590 184 184 184
0.034196 -0.035834 0.922533 181 181 181
0.034194 -0.034513 0.922476 189 189 189
0.034192 -0.033191 0.922419 185 185 185
0.034190 -0.031869 0.922363 200 200 200
0.034188 -0.030548 0.922306 189 189 189
0.034186 -0.029227 0.922249 202 202 202
0.034184 -0.027905 0.922192 196 196 196
0.034182 -0.026585 0.922135 202 202 202
0.034179 -0.025264 0.922079 188 188 188
0.034177 -0.023943 0.922022 197 197 197
0.034175 -0.022623 0.921965 197 197 197
0.034173 -0.021302 0.921908 213 213 213
0.034171 -0.019982 0.921851 214 214 214
0.034169 -0.018662 0.921795 208 208 208
0.034167 -0.017343 0.921738 223 223 223
0.034165 -0.016023 0.921681 218 218 218
0.034163 -0.014704 0.921624 154 154 154
0.034160 -0.013384 0.921568 178 178 178
0.034158 -0.012065 0.921511 51 51 51
0.034156 -0.010746 0.921454 0 0 0
0.034154 -0.009427 0.921397 31 31 31
0.034152 -0.008109 0.921341 10 10 10
0.034150 -0.006790 0.921284 0 0 0
0.034148 -0.005472 0.921227 26 26 26
0.034146 -0.004154 0.921171 29 29 29
0.034144 -0.002836 0.921114 71 71 71
0.034142 -0.001518 0.921057 130 130 130
0.034139 -0.000200 0.921001 187 187 187
0.034137 0.001117 0.920944 224 224 224
0.034135 0.002435 0.920887 224 224 224
0.034133 0.003752 0.920831 213 213 213
0.034131 0.005069 0.920774 216 216 216
0.034129 0.006386 0.920717 221 221 221
0.034127 0.007702 0.920661 225 225 225
0.034125 0.009019 0.920604 226 226 226
0.034123 0.010335 0.920548 218 218 218
0.034121 0.011652 0.920491 230 230 230
0.034118 0.012968 0.920434 214 214 214
0.034116 0.014283 0.920378 229 229 229
0.034114 0.015599 0.920321 214 214 214
0.034112 0.016915 0.920265 212 212 212
0.034110 0.018230 0.920208 223 223 223
0.034108 0.019545 0.920151 220 220 220
0.034106 0.020860 0.920095 220 220 220
0.034104 0.022175 0.920038 228 228 228
0.034102 0.023490 0.919982 228 228 228
0.034100 0.024805 0.919925 229 229 229
0.034098 0.026119 0.919869 231 231 231
0.034095 0.027433 0.919812 255 255 255
0.034093 0.028748 0.919756 239 239 239
0.034091 0.030062 0.919699 173 173 173
0.034089 0.031375 0.919643 85 85 85
0.034087 0.032689 0.919586 13 13 13
0.034085 0.034002 0.919530 0 0 0
0.034083 0.035316 0.919473 2 2 2
0.034081 0.036629 0.919417 13 13 13
0.034079 0.037942 0.919360 29 29 29
0.034077 0.039255 0.919304 19 19 19
0.034074 0.040567 0.919247 15 15 15
0.034072 0.041880 0.919191 22 22 22
0.034070 0.043192 0.919134 16 16 16
0.034068 0.044504 0.919078 16 16 16
0.034066 0.045816 0.919022 2 2 2
0.034064 0.047128 0.918965 17 17 17
0.034062 0.048440 0.918909 25 25 25
0.034060 0.049751 0.918852 41 41 41
0.034058 0.051063 0.918796 22 22 22
0.034056 0.052374 0.918740 0 0 0
0.034054 0.053685 0.918683 0 0 0
0.034051 0.054996 0.918627 0 0 0
0.034049 0.056307 0.918570 7 7 7
0.034047 0.057617 0.918514 16 16 16
0.034045 0.058928 0.918458 11 11 11
0.034043 0.060238 0.918401 3 3 3
0.034041 0.061548 0.918345 21 21 21
0.034039 0.062858 0.918289 53 53 53
0.034037 0.064168 0.918232 97 97 97
0.034035 0.065477 0.918176 168 168 168
0.034033 0.066787 0.918120 215 215 215
0.034031 0.068096 0.918063 209 209 209
0.034029 0.069405 0.918007 202 202 202
0.034026 0.070714 0.917951 255 255 255
0.034024 0.072023 0.917895 248 248 248
0.034022 0.073332 0.917838 217 217 217
0.034020 0.074640 0.917782 65 65 65
0.034018 0.075948 0.917726 96 96 96
0.034016 0.077256 0.917669 22 22 22
0.034014 0.078564 0.917613 0 0 0
0.034012 0.079872 0.917557 2 2 2
0.034010 0.081180 0.917501 10 10 10
0.034008 0.082487 0.917444 76 76 76
0.034006 0.083795 0.917388 62 62 62
0.034003 0.085102 0.917332 31 31 31
0.034001 0.086409 0.917276 25 25 25
0.033999 0.087716 0.917220 56 56 56
0.033997 0.089023 0.917163 34 34 34
0.033995 0.090329 0.917107 33 33 33
0.033993 0.091636 0.917051 48 48 48
0.033991 0.092942 0.916995 44 44 44
0.033989 0.094248 0.916939 42 42 42
0.033987 0.095554 0.916883 53 53 53
0.033985 0.096860 0.916826 50 50 50
0.033983 0.098165 0.916770 44 44 44
0.033981 0.099471 0.916714 55 55 55
0.033978 0.100776 0.916658 61 61 61
0.033976 0.102081 0.916602 62 62 62
0.033974 0.103386 0.916546 62 62 62
0.033972 0.104691 0.916490 64 64 64
0.033970 0.105995 0.916433 64 64 64
0.033968 0.107300 0.916377 75 75 75
0.033966 0.108604 0.916321 62 62 62
0.033964 0.109908 0.916265 71 71 71
0.033962 0.111212 0.916209 68 68 68
0.033960 0.112516 0.916153 53 53 53
0.033958 0.113820 0.916097 29 29 29
0.033956 0.115123 0.916041 22 22 22
0.033954 0.116427 0.915985 0 0 0
0.035476 -0.075342 0.921489 173 173 173
0.035474 -0.074019 0.921432 161 161 161
0.035471 -0.072697 0.921376 131 131 131
0.035469 -0.071374 0.921319 90 90 90
0.035467 -0.070052 0.921262 67 67 67
0.035465 -0.068730 0.921206 42 42 42
0.035463 -0.067408 0.921149 18 18 18
0.035461 -0.066086 0.921092 13 13 13
0.035458 -0.064764 0.921036 2 2 2
0.035456 -0.063443 0.920979 6 6 6
0.035454 -0.062121 0.920922 12 12 12
0.035452 -0.060800 0.920866 4 4 4
0.035450 -0.059479 0.920809 0 0 0
0.035447 -0.058158 0.920752 0 0 0
0.035445 -0.056837 0.920696 54 54 54
0.035443 -0.055517 0.920639 129 129 129
0.035441 -0.054196 0.920582 144 144 144
0.035439 -0.052876 0.920526 189 189 189
0.035437 -0.051556 0.920469 226 226 226
0.035434 -0.050236 0.920413 192 192 192
0.035432 -0.048916 0.920356 169 169 169
0.035430 -0.047597 0.920299 182 182 182
0.035428 -0.046277 0.920243 181 181 181
0.035426 -0.044958 0.920186 186 186 186
0.035424 -0.043639 0.920130 190 190 190
0.035421 -0.042320 0.920073 191 191 191
0.035419 -0.041001 0.920017 188 188 188
0.035417 -0.039683 0.919960 186 186 186
0.035415 -0.038364 0.919904 186 186 186
0.035413 -0.037046 0.919847 188 188 188
0.035410 -0.035728 0.919790 187 187 187
0.035408 -0.034410 0.919734 195 195 195
0.035406 -0.033092 0.919677 189 189 189
0.035404 -0.031774 0.919621 203 203 203
0.035402 -0.030457 0.919564 191 191 191
0.035400 -0.029140 0.919508 205 205 205
0.035397 -0.027823 0.919451 198 198 198
0.035395 -0.026506 0.919395 205 205 205
0.035393 -0.025189 0.919339 210 210 210
0.035391 -0.023872 0.919282 193 193 193
0.035389 -0.022556 0.919226 203 203 203
0.035387 -0.021239 0.919169 207 207 207
0.035384 -0.019923 0.919113 206 206 206
0.035382 -0.018607 0.919056 201 201 201
0.035380 -0.017291 0.919000 202 202 202
0.035378 -0.015975 0.918943 239 239 239
0.035376 -0.014660 0.918887 241 241 241
0.035374 -0.013345 0.918831 227 227 227
0.035371 -0.012029 0.918774 185 185 185
0.035369 -0.010714 0.918718 80 80 80
0.035367 -0.009399 0.918662 8 8 8
0.035365 -0.008085 0.918605 70 70 70
0.035363 -0.006770 0.918549 168 168 168
0.035360 -0.005456 0.918492 193 193 193
0.035358 -0.004141 0.918436 201 201 201
0.035356 -0.002827 0.918380 217 217 217
0.035354 -0.001513 0.918323 228 228 228
0.035352 -0.000200 0.918267 235 235 235
0.035350 0.001114 0.918211 241 241 241
0.035347 0.002427 0.918154 235 235 235
0.035345 0.003741 0.918098 231 231 231
0.035343 0.005054 0.918042 239 239 239
0.035341 0.006367 0.917985 224 224 224
0.035339 0.007680 0.917929 226 226 226
0.035337 0.008992 0.917873 224 224 224
0.035334 0.010305 0.917817 215 215 215
0.035332 0.011617 0.917760 229 229 229
0.035330 0.012929 0.917704 215 215 215
0.035328 0.014241 0.917648 230 230 230
0.035326 0.015553 0.917592 214 214 214
0.035324 0.016865 0.917535 236 236 236
0.035321 0.018176 0.917479 229 229 229
0.035319 0.019487 0.917423 221 221 221
0.035317 0.020799 0.917367 217 217 217
0.035315 0.022110 0.917310 225 225 225
0.035313 0.023421 0.917254 226 226 226
0.035311 0.024731 0.917198 222 222 222
0.035308 0.026042 0.917142 232 232 232
0.035306 0.027352 0.917086 237 237 237
0.035304 0.028662 0.917029 243 243 243
0.035302 0.029972 0.916973 246 246 246
0.035300 0.031282 0.916917 207 207 207
0.035298 0.032592 0.916861 120 120 120
0.035296 0.033902 0.916805 24 24 24
0.035293 0.035211 0.916749 0 0 0
0.035291 0.036520 0.916693 1 1 1
0.035289 0.037829 0.916636 21 21 21
0.035287 0.039138 0.916580 0 0 0
0.035285 0.040447 0.916524 34 34 34
0.035283 0.041756 0.916468 3 3 3
0.035280 0.043064 0.916412 26 26 26
0.035278 0.044373 0.916356 0 0 0
0.035276 0.045681 0.916300 6 6 6
0.035274 0.046989 0.916244 8 8 8
0.035272 0.048296 0.916188 12 12 12
0.035270 0.049604 0.916131 4 4 4
0.035267 0.050912 0.916075 0 0 0
0.035265 0.052219 0.916019 0 0 0
0.035263 0.053526 0.915963 12 12 12
0.035261 0.054833 0.915907 2 2 2
0.035259 0.056140 0.915851 12 12 12
0.035257 0.057447 0.915795 30 30 30
0.035254 0.058753 0.915739 55 55 55
0.035252 0.060060 0.915683 119 119 119
0.035250 0.061366 0.915627 199 199 199
0.035248 0.062672 0.915571 229 229 229
0.035246 0.063978 0.915515 216 216 216
0.035244 0.065284 0.915459 223 223 223
0.035242 0.066589 0.915403 244 244 244
0.035239 0.067895 0.915347 248 248 248
0.035237 0.069200 0.915291 255 255 255
0.035235 0.070505 0.915235 243 243 243
0.035233 0.071810 0.915179 230 230 230
0.035231 0.073115 0.915123 239 239 239
0.035229 0.074419 0.915067 213 213 213
0.035226 0.075724 0.915011 233 233 233
0.035224 0.077028 0.914956 166 166 166
0.035222 0.078332 0.914900 92 92 92
0.035220 0.079636 0.914844 12 12 12
0.035218 0.080940 0.914788 0 0 0
0.035216 0.082244 0.914732 26 26 26
0.035214 0.083547 0.914676 9 9 9
0.035211 0.084850 0.914620 47 47 47
0.035209 0.086154 0.914564 54 54 54
0.035207 0.087457 0.914508 26 26 26
0.035205 0.088760 0.914453 55 55 55
0.035203 0.090062 0.914397 45 45 45
0.035201 0.091365 0.914341 57 57 57
0.035199 0.092667 0.914285 51 51 51
0.035196 0.093969 0.914229 49 49 49
0.035194 0.095271 0.914173 59 59 59
0.035192 0.096573 0.914117 53 53 53
0.035190 0.097875 0.914062 45 45 45
0.035188 0.099177 0.914006 56 56 56
0.035186 0.100478 0.913950 60 60 60
0.035183 0.101779 0.913894 60 60 60
0.035181 0.103081 0.913838 66 66 66
0.035179 0.104382 0.913783 58 58 58
0.035177 0.105682 0.913727 77 77 77
0.035175 0.106983 0.913671 75 75 75
0.035173 0.108283 0.913615 63 63 63
0.035171 0.109584 0.913560 69 69 69
0.035168 0.110884 0.913504 96 96 96
0.035166 0.112184 0.913448 85 85 85
0.035164 0.113484 0.913392 69 69 69
0.035162 0.114784 0.913337 30 30 30
0.035160 0.116083 0.913281 25 25 25
0.035158 0.117382 0.913225 4 4 4
0.035156 0.118682 0.913169 23 23 23
0.036694 -0.080396 0.918978 158 158 158
0.036692 -0.079076 0.918922 133 133 133
0.036689 -0.077757 0.918865 109 109 109
0.036687 -0.076437 0.918809 92 92 92
0.036685 -0.075118 0.918753 53 53 53
0.036683 -0.073800 0.918696 38 38 38
0.036680 -0.072481 0.918640 28 28 28
0.036678 -0.071162 0.918583 13 13 13
0.036676 -0.069844 0.918527 8 8 8
0.036674 -0.068526 0.918471 0 0 0
0.036671 -0.067208 0.918414 13 13 13
0.036669 -0.065890 0.918358 16 16 16
0.036667 -0.064572 0.918302 9 9 9
0.036665 -0.063254 0.918245 15 15 15
0.036662 -0.061937 0.918189 14 14 14
0.036660 -0.060620 0.918133 5 5 5
0.036658 -0.059302 0.918076 9 9 9
0.036656 -0.057985 0.918020 1 1 1
0.036653 -0.056669 0.917964 0 0 0
0.036651 -0.055352 0.917908 30 30 30
0.036649 -0.054036 0.917851 48 48 48
0.036647 -0.052719 0.917795 127 127 127
0.036644 -0.051403 0.917739 212 212 212
0.036642 -0.050087 0.917682 235 235 235
0.036640 -0.048771 0.917626 203 203 203
0.036638 -0.047456 0.917570 192 192 192
0.036635 -0.046140 0.917514 185 185 185
0.036633 -0.044825 0.917457 188 188 188
0.036631 -0.043510 0.917401 192 192 192
0.036629 -0.042195 0.917345 194 194 194
0.036626 -0.040880 0.917289 194 194 194
0.036624 -0.039565 0.917233 195 195 195
0.036622 -0.038251 0.917176 196 196 196
0.036620 -0.036936 0.917120 197 197 197
0.036617 -0.035622 0.917064 208 208 208
0.036615 -0.034308 0.917008 209 209 209
0.036613 -0.032994 0.916952 203 203 203
0.036611 -0.031680 0.916896 204 204 204
0.036608 -0.030367 0.916839 194 194 194
0.036606 -0.029053 0.916783 197 197 197
0.036604 -0.027740 0.916727 194 194 194
0.036602 -0.026427 0.916671 197 197 197
0.036600 -0.025114 0.916615 206 206 206
0.036597 -0.023801 0.916559 200 200 200
0.036595 -0.022489 0.916503 219 219 219
0.036593 -0.021176 0.916446 212 212 212
0.036591 -0.019864 0.916390 226 226 226
0.036588 -0.018552 0.916334 244 244 244
0.036586 -0.017240 0.916278 231 231 231
0.036584 -0.015928 0.916222 255 255 255
0.036582 -0.014616 0.916166 215 215 215
0.036579 -0.013305 0.916110 253 253 253
0.036577 -0.011994 0.916054 189 189 189
0.036575 -0.010683 0.915998 40 40 40
0.036573 -0.009372 0.915942 79 79 79
0.036570 -0.008061 0.915886 193 193 193
0.036568 -0.006750 0.915830 253 253 253
0.036566 -0.005440 0.915774 255 255 255
0.036564 -0.004129 0.915718 232 232 232
0.036561 -0.002819 0.915662 240 240 240
0.036559 -0.001509 0.915606 234 234 234
0.036557 -0.000199 0.915550 222 222 222
0.036555 0.001111 0.915494 221 221 221
0.036552 0.002420 0.915438 219 219 219
0.036550 0.003730 0.915382 218 218 218
0.036548 0.005039 0.915326 227 227 227
0.036546 0.006348 0.915270 210 210 210
0.036544 0.007657 0.915214 217 217 217
0.036541 0.008966 0.915158 214 214 214
0.036539 0.010274 0.915102 215 215 215
0.036537 0.011583 0.915046 224 224 224
0.036535 0.012891 0.914990 219 219 219
0.036532 0.014199 0.914934 233 233 233
0.036530 0.015507 0.914878 222 222 222
0.036528 0.016815 0.914822 226 226 226
0.036526 0.018122 0.914766 214 214 214
0.036523 0.019430 0.914710 221 221 221
0.036521 0.020737 0.914655 218 218 218
0.036519 0.022044 0.914599 217 217 217
0.036517 0.023351 0.914543 223 223 223
0.036515 0.024658 0.914487 225 225 225
0.036512 0.025965 0.914431 240 240 240
0.036510 0.027271 0.914375 222 222 222
0.036508 0.028578 0.914319 233 233 233
0.036506 0.029884 0.914263 255 255 255
0.036503 0.031190 0.914208 255 255 255
0.036501 0.032496 0.914152 231 231 231
0.036499 0.033801 0.914096 156 156 156
0.036497 0.035107 0.914040 97 97 97
0.036494 0.036412 0.913984 59 59 59
0.036492 0.037718 0.913929 16 16 16
0.036490 0.039023 0.913873 0 0 0
0.036488 0.040328 0.913817 14 14 14
0.036486 0.041632 0.913761 0 0 0
0.036483 0.042937 0.913705 0 0 0
0.036481 0.044241 0.913650 5 5 5
0.036479 0.045546 0.913594 4 4 4
0.036477 0.046850 0.913538 10 10 10
0.036474 0.048154 0.913482 0 0 0
0.036472 0.049458 0.913427 0 0 0
0.036470 0.050761 0.913371 0 0 0
0.036468 0.052065 0.913315 3 3 3
0.036466 0.053368 0.913259 91 91 91
0.036463 0.054671 0.913204 146 146 146
0.036461 0.055974 0.913148 196 196 196
0.036459 0.057277 0.913092 217 217 217
0.036457 0.058580 0.913037 233 233 233
0.036454 0.059882 0.912981 240 240 240
0.036452 0.061185 0.912925 242 242 242
0.036450 0.062487 0.912870 246 246 246
0.036448 0.063789 0.912814 255 255 255
0.036446 0.065091 0.912758 255 255 255
0.036443 0.066393 0.912703 255 255 255
0.036441 0.067694 0.912647 248 248 248
0.036439 0.068996 0.912591 253 253 253
0.036437 0.070297 0.912536 248 248 248
0.036434 0.071598 0.912480 255 255 255
0.036432 0.072899 0.912424 255 255 255
0.036430 0.074200 0.912369 253 253 253
0.036428 0.075500 0.912313 247 247 247
0.036426 0.076801 0.912258 241 241 241
0.036423 0.078101 0.912202 217 217 217
0.036421 0.079401 0.912147 123 123 123
0.036419 0.080701 0.912091 11 11 11
0.036417 0.082001 0.912035 1 1 1
0.036414 0.083301 0.911980 12 12 12
0.036412 0.084600 0.911924 11 11 11
0.036410 0.085900 0.911869 39 39 39
0.036408 0.087199 0.911813 37 37 37
0.036406 0.088498 0.911758 57 57 57
0.036403 0.089797 0.911702 45 45 45
0.036401 0.091096 0.911647 46 46 46
0.036399 0.092394 0.911591 44 44 44
0.036397 0.093693 0.911536 49 49 49
0.036394 0.094991 0.911480 58 58 58
0.036392 0.096289 0.911425 56 56 56
0.036390 0.097587 0.911369 53 53 53
0.036388 0.098885 0.911314 59 59 59
0.036386 0.100182 0.911258 57 57 57
0.036383 0.101480 0.911203 70 70 70
0.036381 0.102777 0.911147 78 78 78
0.036379 0.104074 0.911092 71 71 71
0.036377 0.105371 0.911036 78 78 78
0.036375 0.106668 0.910981 65 65 65
0.036372 0.107965 0.910925 72 72 72
0.036370 0.109261 0.910870 79 79 79
0.036368 0.110558 0.910815 62 62 62
0.036366 0.111854 0.910759 28 28 28
0.036363 0.113150 0.910704 24 24 24
0.036361 0.114446 0.910648 0 0 0
0.036359 0.115741 0.910593 22 22 22
0.036357 0.117037 0.910537 0 0 0
0.036355 0.118332 0.910482 0 0 0
0.036352 0.119628 0.910427 14 14 14
0.036350 0.120923 0.910371 139 139 139
0.037905 -0.085422 0.916481 148 148 148
0.037903 -0.084105 0.916425 120 120 120
0.037901 -0.082789 0.916369 107 107 107
0.037898 -0.081473 0.916313 71 71 71
0.037896 -0.080158 0.916257 55 55 55
0.037894 -0.078842 0.916201 37 37 37
0.037891 -0.077526 0.916144 42 42 42
0.037889 -0.076211 0.916088 26 26 26
0.037887 -0.074896 0.916032 0 0 0
0.037884 -0.073581 0.915976 0 0 0
0.037882 -0.072266 0.915920 1 1 1
0.037880 -0.070952 0.915864 11 11 11
0.037877 -0.069637 0.915808 29 29 29
0.037875 -0.068323 0.915752 25 25 25
0.037873 -0.067009 0.915696 9 9 9
0.037870 -0.065695 0.915640 17 17 17
0.037868 -0.064381 0.915584 9 9 9
0.037866 -0.063067 0.915528 16 16 16
0.037864 -0.061754 0.915472 9 9 9
0.037861 -0.060440 0.915416 4 4 4
0.037859 -0.059127 0.915360 23 23 23
0.037857 -0.057814 0.915304 14 14 14
0.037854 -0.056501 0.915248 24 24 24
0.037852 -0.055188 0.915192 0 0 0
0.037850 -0.053876 0.915136 0 0 0
0.037847 -0.052563 0.915080 18 18 18
0.037845 -0.051251 0.915024 73 73 73
0.037843 -0.049939 0.914968 193 193 193
0.037840 -0.048627 0.914913 223 223 223
0.037838 -0.047315 0.914857 196 196 196
0.037836 -0.046004 0.914801 196 196 196
0.037833 -0.044692 0.914745 195 195 195
0.037831 -0.043381 0.914689 195 195 195
0.037829 -0.042070 0.914633 196 196 196
0.037827 -0.040759 0.914577 198 198 198
0.037824 -0.039448 0.914521 199 199 199
0.037822 -0.038137 0.914465 199 199 199
0.037820 -0.036827 0.914410 198 198 198
0.037817 -0.035517 0.914354 197 197 197
0.037815 -0.034207 0.914298 196 196 196
0.037813 -0.032897 0.914242 200 200 200
0.037810 -0.031587 0.914186 196 196 196
0.037808 -0.030277 0.914130 204 204 204
0.037806 -0.028967 0.914075 205 205 205
0.037803 -0.027658 0.914019 217 217 217
0.037801 -0.026349 0.913963 220 220 220
0.037799 -0.025040 0.913907 222 222 222
0.037797 -0.023731 0.913851 237 237 237
0.037794 -0.022422 0.913796 237 237 237
0.037792 -0.021114 0.913740 223 223 223
0.037790 -0.019805 0.913684 217 217 217
0.037787 -0.018497 0.913628 187 187 187
0.037785 -0.017189 0.913572 129 129 129
0.037783 -0.015881 0.913517 98 98 98
0.037780 -0.014573 0.913461 53 53 53
0.037778 -0.013266 0.913405 62 62 62
0.037776 -0.011958 0.913350 51 51 51
0.037773 -0.010651 0.913294 0 0 0
0.037771 -0.009344 0.913238 37 37 37
0.037769 -0.008037 0.913182 71 71 71
0.037767 -0.006730 0.913127 174 174 174
0.037764 -0.005423 0.913071 224 224 224
0.037762 -0.004117 0.913015 232 232 232
0.037760 -0.002811 0.912960 240 240 240
0.037757 -0.001504 0.912904 230 230 230
0.037755 -0.000198 0.912848 215 215 215
0.037753 0.001107 0.912793 213 213 213
0.037750 0.002413 0.912737 213 213 213
0.037748 0.003719 0.912681 212 212 212
0.037746 0.005024 0.912626 216 216 216
0.037744 0.006329 0.912570 220 220 220
0.037741 0.007634 0.912514 234 234 234
0.037739 0.008939 0.912459 224 224 224
0.037737 0.010244 0.912403 231 231 231
0.037734 0.011548 0.912348 223 223 223
0.037732 0.012853 0.912292 222 222 222
0.037730 0.014157 0.912236 227 227 227
0.037727 0.015461 0.912181 221 221 221
0.037725 0.016765 0.912125 228 228 228
0.037723 0.018069 0.912070 213 213 213
0.037721 0.019373 0.912014 240 240 240
0.037718 0.020676 0.911958 242 242 242
0.037716 0.021979 0.911903 231 231 231
0.037714 0.023282 0.911847 239 239 239
0.037711 0.024585 0.911792 234 234 234
0.037709 0.025888 0.911736 235 235 235
0.037707 0.027191 0.911681 225 225 225
0.037704 0.028493 0.911625 224 224 224
0.037702 0.029796 0.911570 229 229 229
0.037700 0.031098 0.911514 220 220 220
0.037698 0.032400 0.911459 249 249 249
0.037695 0.033702 0.911403 253 253 253
0.037693 0.035004 0.911348 247 247 247
0.037691 0.036305 0.911292 215 215 215
0.037688 0.037607 0.911237 122 122 122
0.037686 0.038908 0.911181 45 45 45
0.037684 0.040209 0.911126 6 6 6
0.037681 0.041510 0.911070 23 23 23
0.037679 0.042811 0.911015 0 0 0
0.037677 0.044111 0.910959 17 17 17
0.037675 0.045412 0.910904 0 0 0
0.037672 0.046712 0.910849 35 35 35
0.037670 0.048012 0.910793 118 118 118
0.037668 0.049312 0.910738 172 172 172
0.037665 0.050612 0.910682 180 180 180
0.037663 0.051912 0.910627 163 163 163
0.037661 0.053211 0.910572 211 211 211
0.037659 0.054510 0.910516 255 255 255
0.037656 0.055810 0.910461 255 255 255
0.037654 0.057109 0.910405 245 245 245
0.037652 0.058407 0.910350 245 245 245
0.037649 0.059706 0.910295 255 255 255
0.037647 0.061005 0.910239 245 245 245
0.037645 0.062303 0.910184 239 239 239
0.037643 0.063601 0.910129 253 253 253
0.037640 0.064899 0.910073 247 247 247
0.037638 0.066197 0.910018 235 235 235
0.037636 0.067495 0.909963 246 246 246
0.037633 0.068793 0.909907 240 240 240
0.037631 0.070090 0.909852 244 244 244
0.037629 0.071387 0.909797 231 231 231
0.037627 0.072685 0.909742 251 251 251
0.037624 0.073982 0.909686 247 247 247
0.037622 0.075278 0.909631 255 255 255
0.037620 0.076575 0.909576 254 254 254
0.037617 0.077872 0.909520 246 246 246
0.037615 0.079168 0.909465 244 244 244
0.037613 0.080464 0.909410 180 180 180
0.037611 0.081760 0.909355 84 84 84
0.037608 0.083056 0.909299 57 57 57
0.037606 0.084352 0.909244 16 16 16
0.037604 0.085647 0.909189 6 6 6
0.037601 0.086943 0.909134 10 10 10
0.037599 0.088238 0.909079 58 58 58
0.037597 0.089533 0.909023 49 49 49
0.037595 0.090828 0.908968 38 38 38
0.037592 0.092123 0.908913 40 40 40
0.037590 0.093417 0.908858 50 50 50
0.037588 0.094712 0.908803 55 55 55
0.037585 0.096006 0.908747 59 59 59
0.037583 0.097300 0.908692 62 62 62
0.037581 0.098594 0.908637 59 59 59
0.037579 0.099888 0.908582 52 52 52
0.037576 0.101182 0.908527 73 73 73
0.037574 0.102475 0.908472 55 55 55
0.037572 0.103769 0.908417 62 62 62
0.037569 0.105062 0.908361 34 34 34
0.037567 0.106355 0.908306 22 22 22
0.037565 0.107648 0.908251 36 36 36
0.037563 0.108940 0.908196 39 39 39
0.037560 0.110233 0.908141 28 28 28
0.037558 0.111525 0.908086 4 4 4
0.037556 0.112818 0.908031 73 73 73
0.037553 0.114110 0.907976 122 122 122
0.037551 0.115402 0.907921 160 160 160
0.037549 0.116694 0.907866 160 160 160
0.037547 0.117985 0.907811 178 178 178
0.037544 0.119277 0.907755 194 194 194
0.037542 0.120568 0.907700 235 235 235
0.037540 0.121859 0.907645 245 245 245
0.037538 0.123150 0.907590 234 234 234
0.039108 -0.089107 0.913941 200 200 200
0.039105 -0.087795 0.913886 176 176 176
0.039103 -0.086482 0.913830 173 173 173
0.039101 -0.085169 0.913774 162 162 162
0.039098 -0.083857 0.913718 101 101 101
0.039096 -0.082545 0.913663 48 48 48
0.039093 -0.081233 0.913607 0 0 0
0.039091 -0.079921 0.913551 0 0 0
0.039089 -0.078609 0.913495 2 2 2
0.039086 -0.077298 0.913440 0 0 0
0.039084 -0.075986 0.913384 2 2 2
0.039081 -0.074675 0.913328 2 2 2
0.039079 -0.073364 0.913272 16 16 16
0.039077 -0.072053 0.913217 21 21 21
0.039074 -0.070742 0.913161 15 15 15
0.039072 -0.069432 0.913105 21 21 21
0.039070 -0.068121 0.913050 13 13 13
0.039067 -0.066811 0.912994 23 23 23
0.039065 -0.065501 0.912938 27 27 27
0.039062 -0.064191 0.912883 14 14 14
0.039060 -0.062881 0.912827 20 20 20
0.039058 -0.061571 0.912771 13 13 13
0.039055 -0.060262 0.912716 9 9 9
0.039053 -0.058953 0.912660 27 27 27
0.039050 -0.057643 0.912604 10 10 10
0.039048 -0.056334 0.912549 11 11 11
0.039046 -0.055026 0.912493 0 0 0
0.039043 -0.053717 0.912437 9 9 9
0.039041 -0.052408 0.912382 6 6 6
0.039039 -0.051100 0.912326 12 12 12
0.039036 -0.049792 0.912271 183 183 183
0.039034 -0.048484 0.912215 255 255 255
0.039031 -0.047176 0.912159 209 209 209
0.039029 -0.045868 0.912104 207 207 207
0.039027 -0.044561 0.912048 203 203 203
0.039024 -0.043253 0.911993 198 198 198
0.039022 -0.041946 0.911937 197 197 197
0.039020 -0.040639 0.911882 198 198 198
0.039017 -0.039332 0.911826 198 198 198
0.039015 -0.038025 0.911770 195 195 195
0.039012 -0.036718 0.911715 192 192 192
0.039010 -0.035412 0.911659 204 204 204
0.039008 -0.034106 0.911604 199 199 199
0.039005 -0.032800 0.911548 206 206 206
0.039003 -0.031494 0.911493 194 194 194
0.039001 -0.030188 0.911437 208 208 208
0.038998 -0.028882 0.911382 202 202 202
0.038996 -0.027577 0.911326 219 219 219
0.038993 -0.026271 0.911271 220 220 220
0.038991 -0.024966 0.911215 235 235 235
0.038989 -0.023661 0.911160 255 255 255
0.038986 -0.022356 0.911105 242 242 242
0.038984 -0.021052 0.911049 244 244 244
0.038982 -0.019747 0.910994 226 226 226
0.038979 -0.018443 0.910938 144 144 144
0.038977 -0.017138 0.910883 60 60 60
0.038974 -0.015834 0.910827 0 0 0
0.038972 -0.014530 0.910772 0 0 0
0.038970 -0.013227 0.910716 0 0 0
0.038967 -0.011923 0.910661 12 12 12
0.038965 -0.010620 0.910606 0 0 0
0.038963 -0.009316 0.910550 4 4 4
0.038960 -0.008013 0.910495 0 0 0
0.038958 -0.006710 0.910440 161 161 161
0.038956 -0.005407 0.910384 211 211 211
0.038953 -0.004105 0.910329 241 241 241
0.038951 -0.002802 0.910273 248 248 248
0.038948 -0.001500 0.910218 237 237 237
0.038946 -0.000198 0.910163 221 221 221
0.038944 0.001104 0.910107 222 222 222
0.038941 0.002406 0.910052 226 226 226
0.038939 0.003708 0.909997 225 225 225
0.038937 0.005009 0.909941 228 228 228
0.038934 0.006311 0.909886 214 214 214
0.038932 0.007612 0.909831 235 235 235
0.038929 0.008913 0.909776 224 224 224
0.038927 0.010214 0.909720 239 239 239
0.038925 0.011514 0.909665 222 222 222
0.038922 0.012815 0.909610 227 227 227
0.038920 0.014115 0.909554 229 229 229
0.038918 0.015416 0.909499 229 229 229
0.038915 0.016716 0.909444 236 236 236
0.038913 0.018016 0.909389 209 209 209
0.038911 0.019316 0.909333 237 237 237
0.038908 0.020615 0.909278 241 241 241
0.038906 0.021915 0.909223 229 229 229
0.038903 0.023214 0.909168 242 242 242
0.038901 0.024513 0.909113 231 231 231
0.038899 0.025812 0.909057 217 217 217
0.038896 0.027111 0.909002 236 236 236
0.038894 0.028410 0.908947 222 222 222
0.038892 0.029708 0.908892 235 235 235
0.038889 0.031007 0.908837 238 238 238
0.038887 0.032305 0.908781 255 255 255
0.038885 0.033603 0.908726 234 234 234
0.038882 0.034901 0.908671 246 246 246
0.038880 0.036199 0.908616 252 252 252
0.038877 0.037496 0.908561 205 205 205
0.038875 0.038794 0.908506 45 45 45
0.038873 0.040091 0.908450 0 0 0
0.038870 0.041388 0.908395 5 5 5
0.038868 0.042685 0.908340 6 6 6
0.038866 0.043982 0.908285 0 0 0
0.038863 0.045278 0.908230 1 1 1
0.038861 0.046575 0.908175 73 73 73
0.038859 0.047871 0.908120 187 187 187
0.038856 0.049167 0.908065 251 251 251
0.038854 0.050463 0.908010 255 255 255
0.038852 0.051759 0.907955 253 253 253
0.038849 0.053055 0.907899 249 249 249
0.038847 0.054350 0.907844 255 255 255
0.038844 0.055646 0.907789 247 247 247
0.038842 0.056941 0.907734 255 255 255
0.038840 0.058236 0.907679 239 239 239
0.038837 0.059531 0.907624 255 255 255
0.038835 0.060826 0.907569 251 251 251
0.038833 0.062120 0.907514 241 241 241
0.038830 0.063415 0.907459 255 255 255
0.038828 0.064709 0.907404 241 241 241
0.038826 0.066003 0.907349 234 234 234
0.038823 0.067297 0.907294 255 255 255
0.038821 0.068591 0.907239 250 250 250
0.038819 0.069885 0.907184 255 255 255
0.038816 0.071178 0.907129 249 249 249
0.038814 0.072472 0.907074 238 238 238
0.038812 0.073765 0.907019 244 244 244
0.038809 0.075058 0.906964 249 249 249
0.038807 0.076351 0.906909 255 255 255
0.038804 0.077643 0.906854 255 255 255
0.038802 0.078936 0.906800 255 255 255
0.038800 0.080228 0.906745 248 248 248
0.038797 0.081521 0.906690 144 144 144
0.038795 0.082813 0.906635 114 114 114
0.038793 0.084105 0.906580 15 15 15
0.038790 0.085396 0.906525 0 0 0
0.038788 0.086688 0.906470 34 34 34
0.038786 0.087979 0.906415 35 35 35
0.038783 0.089271 0.906360 65 65 65
0.038781 0.090562 0.906305 43 43 43
0.038779 0.091853 0.906251 46 46 46
0.038776 0.093144 0.906196 60 60 60
0.038774 0.094434 0.906141 59 59 59
0.038772 0.095725 0.906086 65 65 65
0.038769 0.097015 0.906031 71 71 71
0.038767 0.098305 0.905976 61 61 61
0.038765 0.099596 0.905921 71 71 71
0.038762 0.100885 0.905867 88 88 88
0.038760 0.102175 0.905812 36 36 36
0.038758 0.103465 0.905757 55 55 55
0.038755 0.104754 0.905702 0 0 0
0.038753 0.106043 0.905647 0 0 0
0.038750 0.107333 0.905593 2 2 2
0.038748 0.108622 0.905538 0 0 0
0.038746 0.109910 0.905483 7 7 7
0.038743 0.111199 0.905428 0 0 0
0.038741 0.112488 0.905374 114 114 114
0.038739 0.113776 0.905319 226 226 226
0.038736 0.115064 0.905264 240 240 240
0.038734 0.116352 0.905209 252 252 252
0.038732 0.117640 0.905155 255 255 255
0.038729 0.118928 0.905100 249 249 249
0.038727 0.120215 0.905045 248 248 248
0.038725 0.121503 0.904990 255 255 255
0.038722 0.122790 0.904936 255 255 255
0.038720 0.124077 0.904881 255 255 255
0.038718 0.125364 0.904826 222 222 222
0.040306 -0.094082 0.911472 108 108 108
0.040304 -0.092773 0.911416 123 123 123
0.040301 -0.091463 0.911361 153 153 153
0.040299 -0.090154 0.911305 134 134 134
0.040296 -0.088845 0.911250 63 63 63
0.040294 -0.087536 0.911194 86 86 86
0.040291 -0.086227 0.911139 63 63 63
0.040289 -0.084919 0.911083 52 52 52
0.040286 -0.083610 0.911028 43 43 43
0.040284 -0.082302 0.910972 21 21 21
0.040281 -0.080994 0.910917 5 5 5
0.040279 -0.079686 0.910861 7 7 7
0.040277 -0.078378 0.910806 12 12 12
0.040274 -0.077070 0.910751 16 16 16
0.040272 -0.075762 0.910695 23 23 23
0.040269 -0.074455 0.910640 3 3 3
0.040267 -0.073148 0.910584 12 12 12
0.040264 -0.071841 0.910529 15 15 15
0.040262 -0.070534 0.910474 37 37 37
0.040259 -0.069227 0.910418 23 23 23
0.040257 -0.067921 0.910363 26 26 26
0.040255 -0.066614 0.910308 32 32 32
0.040252 -0.065308 0.910252 23 23 23
0.040250 -0.064002 0.910197 13 13 13
0.040247 -0.062696 0.910141 12 12 12
0.040245 -0.061390 0.910086 16 16 16
0.040242 -0.060085 0.910031 17 17 17
0.040240 -0.058779 0.909976 11 11 11
0.040237 -0.057474 0.909920 4 4 4
0.040235 -0.056169 0.909865 0 0 0
0.040232 -0.054864 0.909810 16 16 16
0.040230 -0.053559 0.909754 8 8 8
0.040228 -0.052254 0.909699 4 4 4
0.040225 -0.050950 0.909644 12 12 12
0.040223 -0.049645 0.909588 85 85 85
0.040220 -0.048341 0.909533 162 162 162
0.040218 -0.047037 0.909478 232 232 232
0.040215 -0.045733 0.909423 243 243 243
0.040213 -0.044430 0.909367 212 212 212
0.040210 -0.043126 0.909312 196 196 196
0.040208 -0.041823 0.909257 201 201 201
0.040206 -0.040519 0.909202 206 206 206
0.040203 -0.039216 0.909147 204 204 204
0.040201 -0.037913 0.909091 194 194 194
0.040198 -0.036611 0.909036 205 205 205
0.040196 -0.035308 0.908981 211 211 211
0.040193 -0.034006 0.908926 207 207 207
0.040191 -0.032703 0.908871 208 208 208
0.040189 -0.031401 0.908815 219 219 219
0.040186 -0.030099 0.908760 232 232 232
0.040184 -0.028797 0.908705 238 238 238
0.040181 -0.027496 0.908650 232 232 232
0.040179 -0.026194 0.908595 223 223 223
0.040176 -0.024893 0.908540 209 209 209
0.040174 -0.023592 0.908484 166 166 166
0.040171 -0.022291 0.908429 131 131 131
0.040169 -0.020990 0.908374 105 105 105
0.040167 -0.019689 0.908319 82 82 82
0.040164 -0.018388 0.908264 73 73 73
0.040162 -0.017088 0.908209 50 50 50
0.040159 -0.015788 0.908154 7 7 7
0.040157 -0.014488 0.908099 0 0 0
0.040154 -0.013188 0.908044 9 9 9
0.040152 -0.011888 0.907988 11 11 11
0.040150 -0.010588 0.907933 17 17 17
0.040147 -0.009289 0.907878 0 0 0
0.040145 -0.007990 0.907823 9 9 9
0.040142 -0.006691 0.907768 63 63 63
0.040140 -0.005392 0.907713 69 69 69
0.040137 -0.004093 0.907658 133 133 133
0.040135 -0.002794 0.907603 249 249 249
0.040132 -0.001496 0.907548 247 247 247
0.040130 -0.000197 0.907493 241 241 241
0.040128 0.001101 0.907438 226 226 226
0.040125 0.002399 0.907383 218 218 218
0.040123 0.003697 0.907328 222 222 222
0.040120 0.004995 0.907273 235 235 235
0.040118 0.006292 0.907218 231 231 231
0.040115 0.007589 0.907163 221 221 221
0.040113 0.008887 0.907108 217 217 217
0.040111 0.010184 0.907053 217 217 217
0.040108 0.011481 0.906998 223 223 223
0.040106 0.012777 0.906943 220 220 220
0.040103 0.014074 0.906888 218 218 218
0.040101 0.015371 0.906833 240 240 240
0.040098 0.016667 0.906778 224 224 224
0.040096 0.017963 0.906723 231 231 231
0.040094 0.019259 0.906669 235 235 235
0.040091 0.020555 0.906614 217 217 217
0.040089 0.021851 0.906559 229 229 229
0.040086 0.023146 0.906504 222 222 222
0.040084 0.024441 0.906449 241 241 241
0.040081 0.025737 0.906394 230 230 230
0.040079 0.027032 0.906339 224 224 224
0.040077 0.028327 0.906284 227 227 227
0.040074 0.029621 0.906229 223 223 223
0.040072 0.030916 0.906175 227 227 227
0.040069 0.032210 0.906120 243 243 243
0.040067 0.033505 0.906065 251 251 251
0.040064 0.034799 0.906010 251 251 251
0.040062 0.036093 0.905955 255 255 255
0.040060 0.037386 0.905900 241 241 241
0.040057 0.038680 0.905846 170 170 170
0.040055 0.039973 0.905791 66 66 66
0.040052 0.041267 0.905736 79 79 79
0.040050 0.042560 0.905681 117 117 117
0.040047 0.043853 0.905626 130 130 130
0.040045 0.045146 0.905572 127 127 127
0.040043 0.046439 0.905517 162 162 162
0.040040 0.047731 0.905462 216 216 216
0.040038 0.049023 0.905407 239 239 239
0.040035 0.050316 0.905352 250 250 250
0.040033 0.051608 0.905298 255 255 255
0.040031 0.052900 0.905243 253 253 253
0.040028 0.054191 0.905188 234 234 234
0.040026 0.055483 0.905134 251 251 251
0.040023 0.056774 0.905079 252 252 252
0.040021 0.058066 0.905024 255 255 255
0.040018 0.059357 0.904969 255 255 255
0.040016 0.060648 0.904915 247 247 247
0.040014 0.061939 0.904860 242 242 242
0.040011 0.063229 0.904805 246 246 246
0.040009 0.064520 0.904751 251 251 251
0.040006 0.065810 0.904696 248 248 248
0.040004 0.067100 0.904641 240 240 240
0.040002 0.068390 0.904587 247 247 247
0.039999 0.069680 0.904532 250 250 250
0.039997 0.070970 0.904477 248 248 248
0.039994 0.072260 0.904423 244 244 244
0.039992 0.073549 0.904368 248 248 248
0.039989 0.074838 0.904313 255 255 255
0.039987 0.076127 0.904259 255 255 255
0.039985 0.077416 0.904204 248 248 248
0.039982 0.078705 0.904149 255 255 255
0.039980 0.079994 0.904095 250 250 250
0.039977 0.081282 0.904040 206 206 206
0.039975 0.082571 0.903986 188 188 188
0.039973 0.083859 0.903931 137 137 137
0.039970 0.085147 0.903876 42 42 42
0.039968 0.086435 0.903822 8 8 8
0.039965 0.087722 0.903767 14 14 14
0.039963 0.089010 0.903713 29 29 29
0.039960 0.090297 0.903658 63 63 63
0.039958 0.091585 0.903604 39 39 39
0.039956 0.092872 0.903549 45 45 45
0.039953 0.094159 0.903495 66 66 66
0.039951 0.095445 0.903440 45 45 45
0.039948 0.096732 0.903386 49 49 49
0.039946 0.098018 0.903331 66 66 66
0.039944 0.099305 0.903277 32 32 32
0.039941 0.100591 0.903222 7 7 7
0.039939 0.101877 0.903168 19 19 19
0.039936 0.103163 0.903113 0 0 0
0.039934 0.104448 0.903059 2 2 2
0.039932 0.105734 0.903004 33 33 33
0.039929 0.107019 0.902950 42 42 42
0.039927 0.108305 0.902895 85 85 85
0.039924 0.109590 0.902841 128 128 128
0.039922 0.110875 0.902786 143 143 143
0.039919 0.112159 0.902732 187 187 187
0.039917 0.113444 0.902677 230 230 230
0.039915 0.114728 0.902623 244 244 244
0.039912 0.116013 0.902568 248 248 248
0.039910 0.117297 0.902514 255 255 255
0.039907 0.118581 0.902460 255 255 255
0.039905 0.119865 0.902405 242 242 242
0.039903 0.121148 0.902351 255 255 255
0.039900 0.122432 0.902296 245 245 245
0.039898 0.123715 0.902242 250 250 250
0.039895 0.124998 0.902188 234 234 234
0.039893 0.126281 0.902133 224 224 224
0.041498 -0.099030 0.909015 100 100 100
0.041495 -0.097724 0.908960 142 142 142
0.041493 -0.096418 0.908904 166 166 166
0.041490 -0.095112 0.908849 200 200 200
0.041488 -0.093806 0.908794 202 202 202
0.041485 -0.092500 0.908739 185 185 185
0.041483 -0.091195 0.908684 171 171 171
0.041480 -0.089889 0.908629 100 100 100
0.041478 -0.088584 0.908573 0 0 0
0.041475 -0.087279 0.908518 0 0 0
0.041473 -0.085974 0.908463 0 0 0
0.041470 -0.084669 0.908408 0 0 0
0.041468 -0.083365 0.908353 15 15 15
0.041465 -0.082060 0.908298 8 8 8
0.041463 -0.080756 0.908243 1 1 1
0.041460 -0.079452 0.908188 24 24 24
0.041457 -0.078148 0.908133 26 26 26
0.041455 -0.076844 0.908077 18 18 18
0.041452 -0.075540 0.908022 29 29 29
0.041450 -0.074237 0.907967 14 14 14
0.041447 -0.072933 0.907912 19 19 19
0.041445 -0.071630 0.907857 16 16 16
0.041442 -0.070327 0.907802 29 29 29
0.041440 -0.069024 0.907747 15 15 15
0.041437 -0.067721 0.907692 18 18 18
0.041435 -0.066419 0.907637 19 19 19
0.041432 -0.065116 0.907582 13 13 13
0.041430 -0.063814 0.907527 6 6 6
0.041427 -0.062512 0.907472 2 2 2
0.041425 -0.061210 0.907417 3 3 3
0.041422 -0.059908 0.907362 3 3 3
0.041420 -0.058607 0.907307 2 2 2
0.041417 -0.057305 0.907252 0 0 0
0.041415 -0.056004 0.907197 0 0 0
0.041412 -0.054703 0.907142 12 12 12
0.041410 -0.053402 0.907087 8 8 8
0.041407 -0.052101 0.907032 12 12 12
0.041405 -0.050800 0.906977 0 0 0
0.041402 -0.049500 0.906922 20 20 20
0.041400 -0.048199 0.906867 79 79 79
0.041397 -0.046899 0.906812 162 162 162
0.041395 -0.045599 0.906757 151 151 151
0.041392 -0.044299 0.906702 218 218 218
0.041390 -0.043000 0.906647 234 234 234
0.041387 -0.041700 0.906593 208 208 208
0.041385 -0.040401 0.906538 212 212 212
0.041382 -0.039101 0.906483 207 207 207
0.041380 -0.037802 0.906428 195 195 195
0.041377 -0.036503 0.906373 222 222 222
0.041375 -0.035205 0.906318 232 232 232
0.041372 -0.033906 0.906263 229 229 229
0.041370 -0.032607 0.906208 226 226 226
0.041367 -0.031309 0.906153 222 222 222
0.041365 -0.030011 0.906099 208 208 208
0.041362 -0.028713 0.906044 178 178 178
0.041360 -0.027415 0.905989 139 139 139
0.041357 -0.026117 0.905934 111 111 111
0.041355 -0.024820 0.905879 65 65 65
0.041352 -0.023523 0.905824 21 21 21
0.041350 -0.022225 0.905770 3 3 3
0.041347 -0.020928 0.905715 7 7 7
0.041345 -0.019631 0.905660 0 0 0
0.041342 -0.018335 0.905605 0 0 0
0.041340 -0.017038 0.905551 0 0 0
0.041337 -0.015742 0.905496 0 0 0
0.041335 -0.014445 0.905441 0 0 0
0.041332 -0.013149 0.905386 4 4 4
0.041330 -0.011853 0.905331 0 0 0
0.041327 -0.010557 0.905277 0 0 0
0.041325 -0.009262 0.905222 0 0 0
0.041322 -0.007966 0.905167 0 0 0
0.041320 -0.006671 0.905112 16 16 16
0.041317 -0.005376 0.905058 3 3 3
0.041315 -0.004081 0.905003 14 14 14
0.041312 -0.002786 0.904948 124 124 124
0.041310 -0.001491 0.904894 210 210 210
0.041307 -0.000197 0.904839 248 248 248
0.041305 0.001098 0.904784 253 253 253
0.041302 0.002392 0.904730 231 231 231
0.041300 0.003686 0.904675 228 228 228
0.041297 0.004980 0.904620 219 219 219
0.041295 0.006274 0.904566 233 233 233
0.041292 0.007567 0.904511 231 231 231
0.041290 0.008861 0.904456 228 228 228
0.041287 0.010154 0.904402 228 228 228
0.041285 0.011447 0.904347 239 239 239
0.041282 0.012740 0.904292 239 239 239
0.041280 0.014033 0.904238 227 227 227
0.041277 0.015326 0.904183 230 230 230
0.041275 0.016618 0.904128 224 224 224
0.041272 0.017911 0.904074 242 242 242
0.041270 0.019203 0.904019 244 244 244
0.041267 0.020495 0.903965 231 231 231
0.041265 0.021787 0.903910 236 236 236
0.041262 0.023078 0.903855 231 231 231
0.041260 0.024370 0.903801 241 241 241
0.041257 0.025661 0.903746 245 245 245
0.041255 0.026953 0.903692 236 236 236
0.041252 0.028244 0.903637 243 243 243
0.041250 0.029535 0.903583 242 242 242
0.041247 0.030826 0.903528 243 243 243
0.041245 0.032116 0.903474 250 250 250
0.041242 0.033407 0.903419 249 249 249
0.041240 0.034697 0.903365 244 244 244
0.041237 0.035987 0.903310 250 250 250
0.041235 0.037277 0.903256 223 223 223
0.041232 0.038567 0.903201 161 161 161
0.041230 0.039857 0.903147 81 81 81
0.041227 0.041146 0.903092 132 132 132
0.041225 0.042436 0.903038 234 234 234
0.041222 0.043725 0.902983 236 236 236
0.041220 0.045014 0.902929 255 255 255
0.041217 0.046303 0.902874 255 255 255
0.041215 0.047592 0.902820 255 255 255
0.041212 0.048880 0.902765 240 240 240
0.041210 0.050169 0.902711 240 240 240
0.041208 0.051457 0.902656 239 239 239
0.041205 0.052745 0.902602 245 245 245
0.041203 0.054033 0.902548 244 244 244
0.041200 0.055321 0.902493 235 235 235
0.041198 0.056609 0.902439 244 244 244
0.041195 0.057896 0.902384 245 245 245
0.041193 0.059184 0.902330 248 248 248
0.041190 0.060471 0.902276 248 248 248
0.041188 0.061758 0.902221 246 246 246
0.041185 0.063045 0.902167 248 248 248
0.041183 0.064332 0.902112 253 253 253
0.041180 0.065618 0.902058 255 255 255
0.041178 0.066905 0.902004 253 253 253
0.041175 0.068191 0.901949 249 249 249
0.041173 0.069477 0.901895 251 251 251
0.041170 0.070763 0.901841 250 250 250
0.041168 0.072049 0.901786 249 249 249
0.041165 0.073335 0.901732 251 251 251
0.041163 0.074620 0.901678 255 255 255
0.041160 0.075906 0.901623 255 255 255
0.041158 0.077191 0.901569 251 251 251
0.041155 0.078476 0.901515 242 242 242
0.041153 0.079761 0.901461 255 255 255
0.041150 0.081045 0.901406 251 251 251
0.041148 0.082330 0.901352 255 255 255
0.041145 0.083615 0.901298 254 254 254
0.041143 0.084899 0.901243 189 189 189
0.041141 0.086183 0.901189 100 100 100
0.041138 0.087467 0.901135 12 12 12
0.041136 0.088751 0.901081 1 1 1
0.041133 0.090034 0.901026 21 21 21
0.041131 0.091318 0.900972 22 22 22
0.041128 0.092601 0.900918 31 31 31
0.041126 0.093884 0.900864 33 33 33
0.041123 0.095167 0.900810 12 12 12
0.041121 0.096450 0.900755 4 4 4
0.041118 0.097733 0.900701 6 6 6
0.041116 0.099016 0.900647 7 7 7
0.041113 0.100298 0.900593 24 24 24
0.041111 0.101580 0.900539 79 79 79
0.041108 0.102862 0.900484 88 88 88
0.041106 0.104144 0.900430 112 112 112
0.041103 0.105426 0.900376 161 161 161
0.041101 0.106708 0.900322 178 178 178
0.041098 0.107989 0.900268 216 216 216
0.041096 0.109271 0.900214 244 244 244
0.041094 0.110552 0.900160 243 243 243
0.041091 0.111833 0.900105 255 255 255
0.041089 0.113114 0.900051 255 255 255
0.041086 0.114395 0.899997 255 255 255
0.041084 0.115675 0.899943 254 254 254
0.041081 0.116956 0.899889 255 255 255
0.041079 0.118236 0.899835 252 252 252
0.041076 0.119516 0.899781 249 249 249
0.041074 0.120796 0.899727 255 255 255
0.041071 0.122076 0.899673 251 251 251
0.041069 0.123355 0.899619 253 253 253
0.041066 0.124635 0.899564 251 251 251
0.041064 0.125914 0.899510 254 254 254
0.041061 0.127193 0.899456 225 225 225
0.041059 0.128473 0.899402 196 196 196
0.042681 -0.102649 0.906517 150 150 150
0.042678 -0.101346 0.906462 167 167 167
0.042675 -0.100043 0.906407 188 188 188
0.042673 -0.098740 0.906352 208 208 208
0.042670 -0.097438 0.906297 193 193 193
